-2.935374347260221936e-02 8.823820098768919706e-03 3.147532939910888672e-01
-2.970512554282322623e-02 8.823259122436866164e-03 3.147332966327667236e-01
-3.005628709332086243e-02 8.822636300465092063e-03 3.147110641002655029e-01
-3.036997990682721235e-02 8.809020800981670618e-03 3.142253756523132324e-01
-3.071998245548457004e-02 8.808213169686496258e-03 3.141965866088867188e-01
-3.107010561041534044e-02 8.807468111626803875e-03 3.141700029373168945e-01
-3.142054460011422384e-02 8.806848200038075447e-03 3.141478896141052246e-01
-3.176942327525466431e-02 8.805731340544298291e-03 3.141080439090728760e-01
-3.211496764095499862e-02 8.803560922387987375e-03 3.140306174755096436e-01
-3.245840651914477099e-02 8.800771320238709450e-03 3.139311075210571289e-01
-3.279928164090960968e-02 8.797241025604307652e-03 3.138051927089691162e-01
-3.312227467074990023e-02 8.788210834609344602e-03 3.134830892086029053e-01
-3.346019613207317639e-02 8.784011151874437928e-03 3.133332729339599609e-01
-3.379739261697977531e-02 8.779692871030420065e-03 3.131792247295379639e-01
-3.413302858360111464e-02 8.775008609518408775e-03 3.130121529102325439e-01
-3.446872008033096541e-02 8.770452404860407114e-03 3.128496110439300537e-01
-3.480406439746729780e-02 8.765901293372735381e-03 3.126872777938842773e-01
-3.513800340704619635e-02 8.761047502048313618e-03 3.125141263008117676e-01
-3.547007793793454516e-02 8.755769522394984961e-03 3.123258650302886963e-01
-3.577159845270216215e-02 8.741931378608569503e-03 3.118322491645812988e-01
-3.610082834609783936e-02 8.736187737667933106e-03 3.116273880004882812e-01
-3.643116511637344707e-02 8.730879198992624879e-03 3.114379942417144775e-01
-3.676198562141507614e-02 8.725820225663483143e-03 3.112575709819793701e-01
-3.709242550656199205e-02 8.720767800696194172e-03 3.110773265361785889e-01
-3.742361152661032725e-02 8.716024603927507997e-03 3.109081387519836426e-01
-3.775421017315238464e-02 8.711226109880954027e-03 3.107369542121887207e-01
-3.808444429421797145e-02 8.706432709004729986e-03 3.105660080909729004e-01
-3.844551473855972040e-02 8.709769463166594505e-03 3.106850087642669678e-01
-3.879979162127710629e-02 8.711286500329151750e-03 3.107391297817230225e-01
-3.915395598858594645e-02 8.712743874639272690e-03 3.107911348342895508e-01
-3.950847897329367447e-02 8.714262366993352771e-03 3.108452856540679932e-01
-3.986434288788586605e-02 8.716085721971467137e-03 3.109103143215179443e-01
-4.021937088225967932e-02 8.717666059965267777e-03 3.109666705131530762e-01
-4.057328740134834993e-02 8.718942990526556969e-03 3.110122382640838623e-01
-4.092755788122303534e-02 8.720281039131805301e-03 3.110599517822265625e-01
-4.118499008007347334e-02 8.698314923094585538e-03 3.102764189243316650e-01
-4.155301523394882429e-02 8.703098865225911140e-03 3.104470372200012207e-01
-4.192299028625711549e-02 8.708252426004037261e-03 3.106308877468109131e-01
-4.229834462865255523e-02 8.714566502021625638e-03 3.108561336994171143e-01
-4.267450584564357746e-02 8.720950427232310176e-03 3.110838532447814941e-01
-4.304457618389278400e-02 8.725820225663483143e-03 3.112575709819793701e-01
-4.341694095171987761e-02 8.731122943572700024e-03 3.114467263221740723e-01
-4.379924706416204322e-02 8.738569158595055342e-03 3.117123246192932129e-01
-4.437783092260360468e-02 8.789694402366876602e-03 3.135359883308410645e-01
-4.473444388248026121e-02 8.790806168690323830e-03 3.135756850242614746e-01
-4.509510064497589815e-02 8.792785229161381721e-03 3.136462569236755371e-01
-4.546275353175587702e-02 8.796250767773017287e-03 3.137698769569396973e-01
-4.588163492269813765e-02 8.810697181615978479e-03 3.142851889133453369e-01
-4.718618309823795903e-02 9.014141687657684088e-03 3.215422034263610840e-01
2.174456714885309241e-02 9.874917101114988327e-03 3.669237792491912842e-01
2.089457668364047907e-02 9.710466256365180016e-03 3.608132600784301758e-01
1.992699972935952149e-02 9.495999896898865700e-03 3.528442978858947754e-01
1.929581247270107172e-02 9.404830634593963623e-03 3.494566977024078369e-01
1.878519956255331538e-02 9.358111303299665451e-03 3.477207422256469727e-01
1.832905598450451992e-02 9.331622393801808357e-03 3.467364907264709473e-01
1.791511339717544518e-02 9.321402059867978096e-03 3.463567197322845459e-01
1.750539179658517144e-02 9.312575915828347206e-03 3.460288047790527344e-01
1.710038877092301748e-02 9.305426850914955139e-03 3.457631468772888184e-01
1.651099429465830229e-02 9.218997554853558540e-03 3.425516784191131592e-01
1.610044486471451722e-02 9.207466850057244301e-03 3.421232402324676514e-01
1.569092233432456754e-02 9.195965481922030449e-03 3.416958749294281006e-01
1.528537384467199348e-02 9.185829665511846542e-03 3.413192629814147949e-01
1.487965148873627089e-02 9.175223764032125473e-03 3.409251570701599121e-01
1.447590688359923564e-02 9.165132651105523109e-03 3.405502140522003174e-01
1.407261321321129702e-02 9.154854342341423035e-03 3.401682972908020020e-01
1.366837206762283943e-02 9.143692441284656525e-03 3.397535681724548340e-01
1.316544216126203440e-02 9.082721080631017685e-03 3.374880254268646240e-01
1.277045094058848820e-02 9.074272820726037025e-03 3.371741175651550293e-01
1.236818999052047632e-02 9.061664342880249023e-03 3.367056250572204590e-01
1.196704654023051165e-02 9.049091488122940063e-03 3.362384438514709473e-01
1.156813663430511854e-02 9.037165436893701553e-03 3.357953131198883057e-01
1.116808807011693619e-02 9.024049155414104462e-03 3.353079557418823242e-01
1.076422719517722629e-02 9.008129825815558434e-03 3.347164392471313477e-01
1.035845085163600646e-02 8.990312693640589714e-03 3.340544104576110840e-01
9.929161407053469640e-03 8.957496844232082367e-03 3.328350484371185303e-01
9.541603508405386430e-03 8.948679082095623016e-03 3.325074315071105957e-01
9.152278774417935830e-03 8.938281331211328506e-03 3.321210741996765137e-01
8.762422779109328014e-03 8.926976937800645828e-03 3.317010402679443359e-01
8.372559566050766927e-03 8.915039710700511932e-03 3.312574625015258789e-01
7.983351916773243767e-03 8.902869885787367821e-03 3.308052718639373779e-01
7.594737869221717015e-03 8.890403201803565025e-03 3.303420543670654297e-01
7.206669052829965845e-03 8.877577492967247963e-03 3.298654854297637939e-01
6.821116320788860217e-03 8.865837240591645241e-03 3.294292688369750977e-01
6.443167837569489971e-03 8.859226712957024574e-03 3.291836082935333252e-01
6.065700382459908620e-03 8.852560305967926979e-03 3.289359211921691895e-01
5.689588583773001924e-03 8.846556069329380989e-03 3.287128210067749023e-01
5.314519051462411776e-03 8.841016329824924469e-03 3.285069763660430908e-01
4.939991316059604183e-03 8.835547836497426033e-03 3.283037841320037842e-01
4.565223124809563056e-03 8.829436730593442917e-03 3.280767202377319336e-01
4.190838318318128482e-03 8.823204785585403442e-03 3.278451561927795410e-01
3.812125306576490298e-03 8.812125306576490402e-03 3.274334669113159180e-01
3.439995261142030254e-03 8.806951576843857765e-03 3.272412121295928955e-01
3.068005670793354407e-03 8.801460731774568558e-03 3.270372152328491211e-01
2.696028711507096783e-03 8.795461384579539299e-03 3.268142938613891602e-01
2.324880571104586020e-03 8.789856685325503349e-03 3.266060352325439453e-01
1.954458833206444875e-03 8.784579578787088394e-03 3.264099657535552979e-01
1.584530812688171759e-03 8.779374416917562485e-03 3.262165486812591553e-01
1.214903958607464925e-03 8.773982059210538864e-03 3.260161876678466797e-01
8.412919752299784573e-04 8.761937962844967842e-03 3.255686759948730469e-01
4.721355263609438094e-04 8.755416842177510262e-03 3.253263533115386963e-01
1.033053314313291463e-04 8.748523425310850143e-03 3.250702023506164551e-01
-2.649447368457914440e-04 8.741640485823154449e-03 3.248144686222076416e-01
-6.323613878339530078e-04 8.735277224332094193e-03 3.245780169963836670e-01
-9.991853393148631898e-04 8.729050168767571449e-03 3.243466317653656006e-01
-1.365460392553359374e-03 8.722895057871937752e-03 3.241179287433624268e-01
-1.731076622381806478e-03 8.717129006981849670e-03 3.239036798477172852e-01
-2.097368817776441678e-03 8.707893546670675278e-03 3.235605359077453613e-01
-2.462572966469451889e-03 8.699749829247593880e-03 3.232579231262207031e-01
-2.827220708131790265e-03 8.691117167472839355e-03 3.229371607303619385e-01
-3.191053746268153295e-03 8.682942017912864685e-03 3.226333856582641602e-01
-3.554140212945640191e-03 8.675158722326159477e-03 3.223441839218139648e-01
-3.916529526468366489e-03 8.667763788253068924e-03 3.220694065093994141e-01
-4.278285773470997914e-03 8.660570718348026276e-03 3.218021392822265625e-01
-4.639444751664996251e-03 8.653325960040092468e-03 3.215329349040985107e-01
-5.000000000000000104e-03 8.651329670101404190e-03 3.214587569236755371e-01
-5.360298028681427344e-03 8.647152688354253769e-03 3.213035464286804199e-01
-5.720212003216147527e-03 8.642544038593769073e-03 3.211323320865631104e-01
-6.079758076230064139e-03 8.638064609840512276e-03 3.209658861160278320e-01
-6.438973122276365861e-03 8.633838733658194542e-03 3.208088576793670654e-01
-6.797862641979009017e-03 8.629740681499242783e-03 3.206565678119659424e-01
-7.156334172468632564e-03 8.625336689874529839e-03 3.204929232597351074e-01
-7.514241292374208674e-03 8.620255859568715096e-03 3.203041553497314453e-01
-7.866787603124977130e-03 8.600362809374928474e-03 3.195649683475494385e-01
-8.223888197680936235e-03 8.597035193815827370e-03 3.194413483142852783e-01
-8.580738266464323777e-03 8.593771839514374733e-03 3.193200826644897461e-01
-8.937487024813891429e-03 8.590880781412124634e-03 3.192126452922821045e-01
-9.293964826501906890e-03 8.587929653003811836e-03 3.191030025482177734e-01
-9.650330636650324839e-03 8.585225790739059448e-03 3.190025389194488525e-01
-1.000643649138510324e-02 8.582462556660175323e-03 3.188998699188232422e-01
-1.036227540578693249e-02 8.579640649259090424e-03 3.187949955463409424e-01
-1.072291063144803144e-02 8.584365947172045708e-03 3.189705908298492432e-01
-1.107628957368433573e-02 8.578291162848472595e-03 3.187448382377624512e-01
-1.142903079278767206e-02 8.572041057050228119e-03 3.185126185417175293e-01
-1.178169354796409704e-02 8.566349744796752930e-03 3.183011412620544434e-01
-1.213429588358849384e-02 8.561155060306191444e-03 3.181081414222717285e-01
-1.248668413143605091e-02 8.556210435926914215e-03 3.179244101047515869e-01
-1.283866608981043198e-02 8.551272097975015640e-03 3.177408874034881592e-01
-1.319041658542119064e-02 8.546521654352545738e-03 3.175643682479858398e-01
-1.353211944922804930e-02 8.532119449228048325e-03 3.170292675495147705e-01
-1.388118374859914281e-02 8.525936398655176163e-03 3.167994916439056396e-01
-1.422987353987991907e-02 8.519883267581462860e-03 3.165746033191680908e-01
-1.457840780029073455e-02 8.514140266925096512e-03 3.163611888885498047e-01
-1.492668431717902519e-02 8.508586557582020760e-03 3.161548376083374023e-01
-1.527479764888994493e-02 8.503280812874436378e-03 3.159576952457427979e-01
-1.562255178112536766e-02 8.498041424900293350e-03 3.157630264759063721e-01
-1.597011109231971301e-02 8.492989232763648033e-03 3.155753016471862793e-01
-1.631573691964149572e-02 8.486802689731121063e-03 3.153454065322875977e-01
-1.666390904108993806e-02 8.482842938974499702e-03 3.151982724666595459e-01
-1.701124751241877772e-02 8.478527655825018883e-03 3.150379359722137451e-01
-1.735832110978663065e-02 8.474277332425117493e-03 3.148799836635589600e-01
-1.770522386766970255e-02 8.470149245113134384e-03 3.147266209125518799e-01
-1.805206690449267723e-02 8.466205559670925140e-03 3.145800828933715820e-01
-1.839886995265260436e-02 8.462444180622696877e-03 3.144403100013732910e-01
-1.874575227964669563e-02 8.458924479782581329e-03 3.143095374107360840e-01
-1.910666038282215692e-02 8.463996229693293571e-03 3.144979774951934814e-01
-1.945912284543737866e-02 8.463876787573099136e-03 3.144935369491577148e-01
-1.981147145386785366e-02 8.463697973638772964e-03 3.144868910312652588e-01
-2.016380390967242517e-02 8.463518461212515831e-03 3.144802451133728027e-01
-2.051623153500259020e-02 8.463399019092321396e-03 3.144757747650146484e-01
-2.086887316079810359e-02 8.463399019092321396e-03 3.144757747650146484e-01
-2.122197264805436231e-02 8.463637903332710266e-03 3.144846856594085693e-01
-2.157602630439214506e-02 8.464353857561945915e-03 3.145112991333007812e-01
-2.192118914797902204e-02 8.460594573989510536e-03 3.143715858459472656e-01
-2.227749020210467376e-02 8.462444180622696877e-03 3.144403100013732910e-01
-2.263419568305835225e-02 8.464413927868008614e-03 3.145135045051574707e-01
-2.299119444331154324e-02 8.466444443911314011e-03 3.145889639854431152e-01
-2.334849407896399595e-02 8.468535728752613068e-03 3.146666586399078369e-01
-2.370610218611545958e-02 8.470687782391905785e-03 3.147466182708740234e-01
-2.406375761609524586e-02 8.472781162708997726e-03 3.148244023323059082e-01
-2.442145143402740456e-02 8.474815171211957932e-03 3.148999810218811035e-01
-2.476521685719490148e-02 8.470807224512100220e-03 3.147510588169097900e-01
-2.511944618425332107e-02 8.471345761790871620e-03 3.147710859775543213e-01
-2.547371870139613845e-02 8.471883600577712059e-03 3.147910535335540771e-01
-2.582759645418264069e-02 8.472242625430226326e-03 3.148043751716613770e-01
-2.618180273100733854e-02 8.472721092402935028e-03 3.148221671581268311e-01
-2.653604888007976212e-02 8.473199559375643730e-03 3.148399591445922852e-01
-2.689002634258940913e-02 8.473558584228157997e-03 3.148533105850219727e-01
-2.724324896815233030e-02 8.473618654534220695e-03 3.148555159568786621e-01
-2.758021384477615454e-02 8.467580191791057587e-03 3.146311342716217041e-01
-2.793221812578849592e-02 8.467280538752675056e-03 3.146200180053710938e-01
-2.828420127741992571e-02 8.466982282698154449e-03 3.146089315414428711e-01
-2.863582418183796205e-02 8.466563886031508446e-03 3.145934045314788818e-01
-2.898758241906762220e-02 8.466205559670925140e-03 3.145800828933715820e-01
-2.934017029008828201e-02 8.466146187856793404e-03 3.145778477191925049e-01
-2.969344792189076640e-02 8.466325001791119576e-03 3.145844936370849609e-01
-3.004691816284321346e-02 8.466563886031508446e-03 3.145934045314788818e-01
-3.039127203635871508e-02 8.463757345452904701e-03 3.144891262054443359e-01
-3.074392859241925277e-02 8.463757345452904701e-03 3.144891262054443359e-01
-3.109713649144396283e-02 8.463936159387230873e-03 3.144957721233367920e-01
-3.145017375471070159e-02 8.464055601507425308e-03 3.145002126693725586e-01
-3.180171024985611189e-02 8.463697973638772964e-03 3.144868910312652588e-01
-3.215436433209106076e-02 8.463697973638772964e-03 3.144868910312652588e-01
-3.250604681205004204e-02 8.463399019092321396e-03 3.144757747650146484e-01
-3.285652718739583839e-02 8.462742436677217484e-03 3.144513964653015137e-01
-3.318171633407473314e-02 8.454514900222420692e-03 3.141456842422485352e-01
-3.351610447396524001e-02 8.449216140434145927e-03 3.139488101005554199e-01
-3.384886018000542868e-02 8.443568833172321320e-03 3.137389421463012695e-01
-3.418219607090577233e-02 8.438225369900465012e-03 3.135403990745544434e-01
-3.452216169796883810e-02 8.434903342276811600e-03 3.134169876575469971e-01
-3.486396066262386489e-02 8.432177128270268440e-03 3.133156597614288330e-01
-3.520320221548899758e-02 8.428800618276000023e-03 3.131902217864990234e-01
-3.553981772973201919e-02 8.424777304753661156e-03 3.130407035350799561e-01
-3.586527972482144583e-02 8.417803561314940453e-03 3.127816021442413330e-01
-3.618495678063481796e-02 8.409426547586917877e-03 3.124703466892242432e-01
-3.650488395476713527e-02 8.401302387937903404e-03 3.121684491634368896e-01
-3.682730695698410023e-02 8.394015021622180939e-03 3.118976652622222900e-01
-3.714647725690155972e-02 8.386037545278668404e-03 3.116012513637542725e-01
-3.746231941739096988e-02 8.377372752875089645e-03 3.112792968750000000e-01
-3.777705103391781200e-02 8.368608774617314339e-03 3.109536767005920410e-01
-3.809527979581616569e-02 8.360912790521979332e-03 3.106676936149597168e-01
-3.853852313011884440e-02 8.384630782529711723e-03 3.115489780902862549e-01
-3.888125417404807854e-02 8.382990723475813866e-03 3.114880621433258057e-01
-3.922169800614937890e-02 8.380824001505970955e-03 3.114075660705566406e-01
-3.956100469338707376e-02 8.378425380215048790e-03 3.113183975219726562e-01
-3.990352537482976664e-02 8.376846089959144592e-03 3.112597465515136719e-01
-4.024985630065202463e-02 8.376203477382659912e-03 3.112358450889587402e-01
-4.059687582310288895e-02 8.375735487788915634e-03 3.112184703350067139e-01
-4.094762145075946796e-02 8.376144804060459137e-03 3.112336695194244385e-01
-4.114424332045018423e-02 8.340979227796196938e-03 3.099270164966583252e-01
-4.150751590612344194e-02 8.344575064256787300e-03 3.100606501102447510e-01
-4.187033540336414922e-02 8.348000468686223030e-03 3.101879060268402100e-01
-4.223500363412312913e-02 8.351776516065001488e-03 3.103282153606414795e-01
-4.259948047809302557e-02 8.355440106242895126e-03 3.104643523693084717e-01
-4.296295562642626215e-02 8.358815917745232582e-03 3.105897903442382812e-01
-4.332699061604216445e-02 8.362252498045563698e-03 3.107174932956695557e-01
-4.368674079421907414e-02 8.364700712263584137e-03 3.108084499835968018e-01
-4.421074233949184168e-02 8.402301929891109467e-03 3.122056126594543457e-01
-4.454228980001061905e-02 8.398362435400485992e-03 3.120592236518859863e-01
-4.486794495722278703e-02 8.393251569941639900e-03 3.118693232536315918e-01
-4.520557127660140145e-02 8.390727918595075607e-03 3.117755353450775146e-01
-4.557816904969513166e-02 8.395483251661062241e-03 3.119522333145141602e-01
-4.607886296696960676e-02 8.426433429121971130e-03 3.131022751331329346e-01
-4.784739005379378546e-02 8.714723400771617889e-03 3.238142728805541992e-01
2.112540149129927061e-02 9.244372835382819176e-03 3.584291040897369385e-01
2.021531470119953058e-02 9.061753720743581653e-03 3.513484895229339600e-01
1.961956985644064747e-02 8.988096931716427207e-03 3.484925925731658936e-01
1.915797690628096364e-02 8.961830142652615905e-03 3.474741578102111816e-01
1.873134659137576721e-02 8.947884780354797840e-03 3.469334542751312256e-01
1.832415955606847904e-02 8.940927829826250672e-03 3.466637134552001953e-01
1.792472758563235305e-02 8.936758211348205805e-03 3.465020656585693359e-01
1.752269571181386612e-02 8.931413816753774881e-03 3.462948501110076904e-01
1.711771285510621868e-02 8.924691152060404420e-03 3.460341691970825195e-01
1.652935252524912260e-02 8.842412644298747182e-03 3.428440392017364502e-01
1.612119007506407700e-02 8.832497667754068971e-03 3.424595892429351807e-01
1.571537025040015481e-02 8.823213254800066352e-03 3.420996069908142090e-01
1.530962507706135414e-02 8.813610882498323917e-03 3.417273163795471191e-01
1.490384771488606833e-02 8.803624950814992189e-03 3.413401246070861816e-01
1.449705215520225368e-02 8.792788226855918765e-03 3.409199416637420654e-01
1.409081911435350679e-02 8.781776792602613568e-03 3.404930233955383301e-01
1.368232348351739250e-02 8.769253880018368363e-03 3.400074541568756104e-01
1.318581297993659876e-02 8.714035386219620705e-03 3.378665149211883545e-01
1.278914849273860357e-02 8.705327985808253288e-03 3.375288844108581543e-01
1.238617644878104232e-02 8.693088224390521646e-03 3.370543420314788818e-01
1.198113206657580934e-02 8.679245278472080827e-03 3.365175724029541016e-01
1.157974754925817154e-02 8.666686218930408359e-03 3.360306620597839355e-01
1.117903713486157261e-02 8.653903583763167262e-03 3.355350196361541748e-01
1.077642513439059160e-02 8.639470906928181648e-03 3.349754512310028076e-01
1.036892884178087018e-02 8.621594228316098452e-03 3.342823088169097900e-01
9.942098641768096906e-03 8.591706719016656280e-03 3.331235051155090332e-01
9.553215063642709476e-03 8.582665293943136930e-03 3.327729403972625732e-01
9.163460989948361141e-03 8.572621125495061278e-03 3.323834836483001709e-01
8.773181504802777392e-03 8.561707421904429793e-03 3.319603204727172852e-01
8.383496901951729280e-03 8.550567465135827661e-03 3.315283954143524170e-01
7.994920543860643131e-03 8.539519214536994696e-03 3.311000466346740723e-01
7.606225325725972548e-03 8.527740661520510912e-03 3.306433558464050293e-01
7.217696668813004986e-03 8.515364344930276275e-03 3.301634788513183594e-01
6.829157359898090258e-03 8.502206852426752448e-03 3.296533226966857910e-01
6.451876052888110176e-03 8.496553200529888272e-03 3.294341266155242920e-01
6.075178044848143950e-03 8.490969834383577108e-03 3.292176425457000732e-01
5.699054168071597710e-03 8.485456753987818956e-03 3.290038704872131348e-01
5.323570226319134131e-03 8.480075543047860265e-03 3.287952244281768799e-01
4.948929044185206190e-03 8.475013630231842399e-03 3.285989761352539062e-01
4.574311086907982722e-03 8.469582884572446346e-03 3.283884227275848389e-01
4.199632040690630570e-03 8.463661477435380220e-03 3.281588256359100342e-01
3.819249225780367747e-03 8.451780508039519191e-03 3.276981711387634277e-01
3.446628227829933062e-03 8.446628227829933167e-03 3.274984061717987061e-01
3.073927660007029668e-03 8.440924371825531125e-03 3.272772729396820068e-01
2.701448048464953795e-03 8.434919291175901890e-03 3.270444273948669434e-01
2.329819491133093730e-03 8.429292414803057909e-03 3.268262445926666260e-01
1.958890910027548567e-03 8.423920575296506286e-03 3.266179859638214111e-01
1.588386488147079841e-03 8.418493845965713263e-03 3.264075517654418945e-01
1.218177819391712442e-03 8.412828814471140504e-03 3.261879086494445801e-01
8.471839874982832821e-04 8.405326982028782368e-03 3.258970379829406738e-01
4.772109433542935999e-04 8.398390113143250346e-03 3.256281018257141113e-01
1.077363896183668526e-04 8.391281211515888572e-03 3.253524601459503174e-01
-2.610783802811057416e-04 8.384245942579582334e-03 3.250796794891357422e-01
-6.290522823110223857e-04 8.377649792237207294e-03 3.248239159584045410e-01
-9.963604051154107896e-04 8.371246425667777658e-03 3.245756328105926514e-01
-1.363054378889501199e-03 8.364974928554147482e-03 3.243324756622314453e-01
-1.729152189800515875e-03 8.358833292732015252e-03 3.240943849086761475e-01
-2.095303144305944547e-03 8.351003460120409727e-03 3.237907886505126953e-01
-2.460676881019026145e-03 8.343490248080343008e-03 3.234994709491729736e-01
-2.825425234623253450e-03 8.335869933944195509e-03 3.232040107250213623e-01
-3.189429170452058419e-03 8.328625815920531750e-03 3.229231238365173340e-01
-3.552801087498664960e-03 8.321393746882677078e-03 3.226427137851715088e-01
-3.915518983267247781e-03 8.314354461617767811e-03 3.223698139190673828e-01
-4.277587165124714479e-03 8.307747601065784693e-03 3.221136331558227539e-01
-4.639098619809374317e-03 8.300731744384393096e-03 3.218415975570678711e-01
-5.000000000000000104e-03 8.298994682263582945e-03 3.217742741107940674e-01
-5.360674894182011589e-03 8.295522566186264157e-03 3.216396272182464600e-01
-5.721001299098134145e-03 8.291514939628541470e-03 3.214842379093170166e-01
-6.080995367374271258e-03 8.287631149869412184e-03 3.213336765766143799e-01
-6.440714579075574979e-03 8.284108829684555531e-03 3.211970925331115723e-01
-6.800205936888232931e-03 8.280947309685871005e-03 3.210745155811309814e-01
-7.159252122510224685e-03 8.277133136289194226e-03 3.209266066551208496e-01
-7.517750079277902946e-03 8.272607403341680765e-03 3.207511305809020996e-01
-7.870119875296951312e-03 8.251594641478732228e-03 3.199364244937896729e-01
-8.227611072361470240e-03 8.248339407145977020e-03 3.198102116584777832e-01
-8.584949008654804009e-03 8.245382719906046987e-03 3.196955621242523193e-01
-8.941974136978388804e-03 8.242309559136629105e-03 3.195764124393463135e-01
-9.298763815313578623e-03 8.239297312684357166e-03 3.194596469402313232e-01
-9.655393335269765037e-03 8.236465131631121039e-03 3.193498253822326660e-01
-1.001181324943900205e-02 8.233693195506930351e-03 3.192423582077026367e-01
-1.036787862074561514e-02 8.230747218476608396e-03 3.191281259059906006e-01
-1.072856608778238394e-02 8.234813751187175512e-03 3.192857801914215088e-01
-1.108224654570221998e-02 8.228921797126531601e-03 3.190573453903198242e-01
-1.143555819988250830e-02 8.223213255405426025e-03 3.188360035419464111e-01
-1.178857529419474401e-02 8.217749040341004729e-03 3.186241388320922852e-01
-1.214142865035683014e-02 8.212642947910353541e-03 3.184261620044708252e-01
-1.249416559119708933e-02 8.207895647501572967e-03 3.182421028614044189e-01
-1.284643786028027632e-02 8.203094126656651497e-03 3.180559277534484863e-01
-1.319829863030463554e-02 8.198298630304634571e-03 3.178700208663940430e-01
-1.354007387533784010e-02 8.184237463865429163e-03 3.173248171806335449e-01
-1.388939466676674880e-02 8.178243093425408006e-03 3.170923888683319092e-01
-1.423840003088116743e-02 8.172430796548724174e-03 3.168670535087585449e-01
-1.458711450221017100e-02 8.166801242623478174e-03 3.166487812995910645e-01
-1.493570126593113043e-02 8.161468897014856339e-03 3.164420127868652344e-01
-1.528412565938197173e-02 8.156375522958114743e-03 3.162445425987243652e-01
-1.563219009665772416e-02 8.151345740770921111e-03 3.160495162010192871e-01
-1.597990287235006787e-02 8.146379550453275442e-03 3.158569633960723877e-01
-1.632550835609436132e-02 8.140209130942821503e-03 3.156177401542663574e-01
-1.667348257149569787e-02 8.136063610436394811e-03 3.154569864273071289e-01
-1.702067575650289752e-02 8.131633599987253547e-03 3.152852058410644531e-01
-1.736749085364863374e-02 8.127208275254815817e-03 3.151136636734008789e-01
-1.771455816458910801e-02 8.123189938487485051e-03 3.149578273296356201e-01
-1.806155818747356631e-02 8.119346981402486563e-03 3.148088455200195312e-01
-1.840823178179562189e-02 8.115508710034191608e-03 3.146600127220153809e-01
-1.875477024703286685e-02 8.111787581583485007e-03 3.145157396793365479e-01
-1.911502249538898565e-02 8.116137934848666191e-03 3.146844208240509033e-01
-1.946708186995238163e-02 8.115680073387920856e-03 3.146666586399078369e-01
-1.981889240676537253e-02 8.115107746561989188e-03 3.146444559097290039e-01
-2.017075955052860178e-02 8.114592317724600434e-03 3.146244585514068604e-01
-2.052312867715954878e-02 8.114362717606127262e-03 3.146155774593353271e-01
-2.087570310221053757e-02 8.114248252240940928e-03 3.146111667156219482e-01
-2.122838270850479700e-02 8.114191354252398014e-03 3.146089315414428711e-01
-2.158199299708940186e-02 8.114592317724600434e-03 3.146244585514068604e-01
-2.192751469090581037e-02 8.111100789392367005e-03 3.144891262054443359e-01
-2.228443810134194888e-02 8.113103598589077592e-03 3.145667612552642822e-01
-2.264203625498339631e-02 8.115336677292361856e-03 3.146533370018005371e-01
-2.299970390857197441e-02 8.117513527395203710e-03 3.147377371788024902e-01
-2.335730357561260559e-02 8.119576581520959735e-03 3.148177564144134521e-01
-2.371548214694485165e-02 8.121813007164746523e-03 3.149044513702392578e-01
-2.407372317509725787e-02 8.123993204208090901e-03 3.149890005588531494e-01
-2.443188166478648879e-02 8.126059605274349451e-03 3.150691092014312744e-01
-2.477792126126587488e-02 8.123074803734198213e-03 3.149533867835998535e-01
-2.513294812059030034e-02 8.123821171466261148e-03 3.149822950363159180e-01
-2.548847370315343239e-02 8.124739571940153837e-03 3.150179088115692139e-01
-2.584349017241038479e-02 8.125428372295573354e-03 3.150446116924285889e-01
-2.619826793204993107e-02 8.126002707285806537e-03 3.150669038295745850e-01
-2.655355189461261131e-02 8.126749075017869473e-03 3.150958418846130371e-01
-2.690890075871721007e-02 8.127495442749932408e-03 3.151247799396514893e-01
-2.726337208412587740e-02 8.127897744998335838e-03 3.151403665542602539e-01
-2.760781079530716040e-02 8.124682004563510418e-03 3.150156736373901367e-01
-2.796073245815932848e-02 8.124566869810223579e-03 3.150112330913543701e-01
-2.831380930263549187e-02 8.124509302433580160e-03 3.150089979171752930e-01
-2.866638195235282280e-02 8.124280371703207493e-03 3.150001168251037598e-01
-2.901927113533020117e-02 8.124165236949920654e-03 3.149956464767456055e-01
-2.937301381723955371e-02 8.124337939079850912e-03 3.150023519992828369e-01
-2.972711785230785705e-02 8.124624437186866999e-03 3.150134682655334473e-01
-3.008142450824380018e-02 8.124968502670526505e-03 3.150268197059631348e-01
-3.042821737006306745e-02 8.122902770992368460e-03 3.149467110633850098e-01
-3.078247908968478538e-02 8.123246836476027966e-03 3.149600327014923096e-01
-3.113677288172766663e-02 8.123591571347787976e-03 3.149734139442443848e-01
-3.149053349159657705e-02 8.123763604089617729e-03 3.149800896644592285e-01
-3.184430906083434570e-02 8.123935636831447482e-03 3.149867653846740723e-01
-3.219906097627244640e-02 8.124394837068393826e-03 3.150045573711395264e-01
-3.255307417828589428e-02 8.124624437186866999e-03 3.150134682655334473e-01
-3.290533466031774629e-02 8.124337939079850912e-03 3.150023519992828369e-01
-3.322247566655277956e-02 8.113961754133924842e-03 3.146000504493713379e-01
-3.355692303273826588e-02 8.108755922876298428e-03 3.143981695175170898e-01
-3.388768399134278048e-02 8.102643070742487907e-03 3.141611814498901367e-01
-3.421732640243135143e-02 8.096367557300254703e-03 3.139178752899169922e-01
-3.455311432015150536e-02 8.091924159089103341e-03 3.137455582618713379e-01
-3.489378757774829615e-02 8.088907226920127869e-03 3.136286139488220215e-01
-3.523612074321135629e-02 8.086404384812340140e-03 3.135315775871276855e-01
-3.557459014235064138e-02 8.082937623839825392e-03 3.133971691131591797e-01
-3.588347660377621401e-02 8.071817748714238405e-03 3.129660189151763916e-01
-3.620026251417584467e-02 8.062989189056679606e-03 3.126237094402313232e-01
-3.651414857711642731e-02 8.053615747485309839e-03 3.122602701187133789e-01
-3.683042153250425804e-02 8.045051596127450466e-03 3.119282126426696777e-01
-3.714714932255446661e-02 8.036787330638617277e-03 3.116077780723571777e-01
-3.746096067596226681e-02 8.027979522012174129e-03 3.112662732601165771e-01
-3.777293918654322374e-02 8.018910652026534081e-03 3.109146356582641602e-01
-3.808882383862510074e-02 8.010978403035551310e-03 3.106071054935455322e-01
-3.854110196232795466e-02 8.035889011807739735e-03 3.115729391574859619e-01
-3.888291131705045450e-02 8.034092374145984650e-03 3.115032911300659180e-01
-3.922074537957086909e-02 8.031399425817653537e-03 3.113988637924194336e-01
-3.955859306268393744e-02 8.028764044865965843e-03 3.112967014312744141e-01
-3.990060335025191057e-02 8.027138770557940006e-03 3.112336695194244385e-01
-4.024616430513560522e-02 8.026354247704148293e-03 3.112032711505889893e-01
-4.059314727317541588e-02 8.025905757676810026e-03 3.111858963966369629e-01
-4.094134727609343577e-02 8.025737741263583302e-03 3.111793696880340576e-01
-4.111888480372726667e-02 7.987830293131992221e-03 3.097095787525177002e-01
-4.148239944595843304e-02 7.991382735781371593e-03 3.098473250865936279e-01
-4.184418997727334250e-02 7.994494051672518253e-03 3.099679648876190186e-01
-4.220807281206361700e-02 7.997996959602460265e-03 3.101037740707397461e-01
-4.257175104692578066e-02 8.001391426660120487e-03 3.102353811264038086e-01
-4.293547383975237358e-02 8.004733012057840824e-03 3.103649616241455078e-01
-4.329870285699143756e-02 8.007910597370937467e-03 3.104881346225738525e-01
-4.366194651345722128e-02 8.011033962247893214e-03 3.106092512607574463e-01
-4.418687207624315966e-02 8.047304087085649371e-03 3.120155334472656250e-01
-4.451297403546049941e-02 8.042463741730898619e-03 3.118278682231903076e-01
-4.485205583740025509e-02 8.040327054914087057e-03 3.117450177669525146e-01
-4.519376661744899798e-02 8.038753323489800096e-03 3.116840124130249023e-01
-4.554582992102950562e-02 8.039259380893781781e-03 3.117036223411560059e-01
-4.593027251656166959e-02 8.046121947700157762e-03 3.119696974754333496e-01
-4.654110362287610519e-02 8.096994773950427771e-03 3.139421939849853516e-01
-4.914699494373053063e-02 8.532612468115985394e-03 3.308322727680206299e-01
2.224030904937535427e-02 9.080103016458451748e-03 3.680626451969146729e-01
2.096925085526890956e-02 8.789592597167938948e-03 3.562867939472198486e-01
2.006559900939464472e-02 8.616299659479409456e-03 3.492623567581176758e-01
1.958172006299719117e-02 8.584092720411717892e-03 3.479568362236022949e-01
1.914894389221444629e-02 8.568980090785771608e-03 3.473442494869232178e-01
1.873984156292863093e-02 8.561910071875900030e-03 3.470576703548431396e-01
1.833631506189703844e-02 8.556648856028914452e-03 3.468443751335144043e-01
1.793577900854870580e-02 8.552324376069009304e-03 3.466690778732299805e-01
1.753039646893739603e-02 8.546012453734874725e-03 3.464132249355316162e-01
1.712818726547993622e-02 8.540703856851905584e-03 3.461980521678924561e-01
1.654691377654671572e-02 8.464858983643352985e-03 3.431237041950225830e-01
1.613937414833344422e-02 8.455749659333378077e-03 3.427544236183166504e-01
1.573254948481917284e-02 8.446594234555959702e-03 3.423833250999450684e-01
1.532551440061069928e-02 8.437005977611988783e-03 3.419946730136871338e-01
1.491879101842641733e-02 8.427180815488100052e-03 3.415963947772979736e-01
1.451077595003880463e-02 8.416413154918700457e-03 3.411599397659301758e-01
1.410175778903067015e-02 8.404773427173495293e-03 3.406881093978881836e-01
1.369344268925487898e-02 8.392974268645048141e-03 3.402098119258880615e-01
1.320153603330254458e-02 8.342370681930333376e-03 3.381586074829101562e-01
1.280195048195309840e-02 8.332827885169535875e-03 3.377718031406402588e-01
1.239880244713276528e-02 8.321166387759149075e-03 3.372991085052490234e-01
1.199267420917749308e-02 8.307529613375663757e-03 3.367463052272796631e-01
1.159012655727565191e-02 8.295063278637826443e-03 3.362409770488739014e-01
1.118805268662981592e-02 8.282259514089673758e-03 3.357219994068145752e-01
1.078579453052952788e-02 8.268749515991657972e-03 3.351743817329406738e-01
1.037988294148817561e-02 8.252620114944875240e-03 3.345205783843994141e-01
9.953716890886425001e-03 8.224544289987534285e-03 3.333825170993804932e-01
9.564303361112250906e-03 8.215760870371013880e-03 3.330264687538146973e-01
9.174662006553261501e-03 8.206383266951888800e-03 3.326463401317596436e-01
8.784983690129592043e-03 8.196476788725703955e-03 3.322448134422302246e-01
8.395148795098065359e-03 8.185924263671040535e-03 3.318170607089996338e-01
8.006026711082084996e-03 8.175216789823025465e-03 3.313830196857452393e-01
7.616985477507114306e-03 8.163931779563426971e-03 3.309255838394165039e-01
7.227837811224162474e-03 8.151891874149441719e-03 3.304375410079956055e-01
6.838084086775779620e-03 8.138682809658348560e-03 3.299021124839782715e-01
6.461190559202805057e-03 8.133748138789087534e-03 3.297020792961120605e-01
6.085080914199352160e-03 8.129059337079524994e-03 3.295120298862457275e-01
5.709010122809559003e-03 8.124076644890010357e-03 3.293100595474243164e-01
5.333247249945998088e-03 8.118979982100427151e-03 3.291034400463104248e-01
4.958175593055784598e-03 8.114069001749157906e-03 3.289043903350830078e-01
4.583486826159059897e-03 8.109104237519204617e-03 3.287031352519989014e-01
4.208645496983080998e-03 8.103608037345111370e-03 3.284803628921508789e-01
3.826579898595809832e-03 8.091031573712825775e-03 3.279705643653869629e-01
3.453147398540750042e-03 8.085619250778108835e-03 3.277511894702911377e-01
3.079857972916215554e-03 8.079857972916215658e-03 3.275176286697387695e-01
2.706987787969410315e-03 8.073987206444144249e-03 3.272796571254730225e-01
2.334873662330210105e-03 8.068361028563231230e-03 3.270516097545623779e-01
1.963481690036132828e-03 8.062978798989206553e-03 3.268334567546844482e-01
1.592488905880600110e-03 8.057486440520733595e-03 3.266108036041259766e-01
1.221864314284175530e-03 8.051824406720697880e-03 3.263812959194183350e-01
8.524878695607184323e-04 8.047170820645987988e-03 3.261926472187042236e-01
4.819750948809086236e-04 8.040230139158666134e-03 3.259113132953643799e-01
1.121385185979305657e-04 8.033360529225319624e-03 3.256328403949737549e-01
-2.571707835886628477e-04 8.026326366234570742e-03 3.253477215766906738e-01
-6.256743753328920452e-04 8.019596978556364775e-03 3.250749409198760986e-01
-9.934147773310543147e-04 8.013170445337891579e-03 3.248144686222076416e-01
-1.360513032414019212e-03 8.006871328689157963e-03 3.245591223239898682e-01
-1.727130055660382017e-03 8.000348752830177546e-03 3.242947161197662354e-01
-2.093424666672945127e-03 7.993082166649401188e-03 3.240001797676086426e-01
-2.458962316159159049e-03 7.986118434928357601e-03 3.237178921699523926e-01
-2.823831974528730020e-03 7.979282760061323643e-03 3.234408199787139893e-01
-3.188090685289353236e-03 7.972400984726846218e-03 3.231618702411651611e-01
-3.551679775118827924e-03 7.965761236846446991e-03 3.228927254676818848e-01
-3.914640105795115337e-03 7.959305890835821629e-03 3.226310610771179199e-01
-4.276981281582266196e-03 7.953205902595072985e-03 3.223837912082672119e-01
-4.638785753631964430e-03 7.946713420096784830e-03 3.221206068992614746e-01
-5.000000000000000104e-03 7.944704208057373762e-03 3.220391869544982910e-01
-5.360966514563188061e-03 7.941263320390135050e-03 3.218997120857238770e-01
-5.721625634469091996e-03 7.937881979160010815e-03 3.217626512050628662e-01
-6.082009053789079293e-03 7.934733061119914055e-03 3.216349780559539795e-01
-6.442189794033765897e-03 7.932043867185711861e-03 3.215259909629821777e-01
-6.802230399334803328e-03 7.929813757073134184e-03 3.214355707168579102e-01
-7.161975193303078517e-03 7.927242375444620848e-03 3.213313519954681396e-01
-7.521250513382256135e-03 7.923930184915661812e-03 3.211970925331115723e-01
-7.873439341783524531e-03 7.901958189904689789e-03 3.203064501285552979e-01
-8.231365903047845739e-03 7.898894429672509432e-03 3.201822638511657715e-01
-8.589143452700228470e-03 7.896115595940500498e-03 3.200696408748626709e-01
-8.946726326830686110e-03 7.893452653661370277e-03 3.199616670608520508e-01
-9.304005997255445498e-03 7.890677661634981632e-03 3.198492228984832764e-01
-9.661001614294947165e-03 7.887848885729908943e-03 3.197345435619354248e-01
-1.001766917295754053e-02 7.884908700361847878e-03 3.196153640747070312e-01
-1.037410960532724954e-02 7.882027421146631241e-03 3.194985687732696533e-01
-1.073427369818091490e-02 7.884626334998756647e-03 3.196039199829101562e-01
-1.108830197597853937e-02 7.878979027736932039e-03 3.193749785423278809e-01
-1.144209975143894650e-02 7.873677473980933428e-03 3.191601037979125977e-01
-1.179556763498112656e-02 7.868551998399198055e-03 3.189523518085479736e-01
-1.214883091859519579e-02 7.863714010454714298e-03 3.187562525272369385e-01
-1.250176806468516685e-02 7.858995115384459496e-03 3.185649514198303223e-01
-1.285439339233562447e-02 7.854393392335623503e-03 3.183784186840057373e-01
-1.320654816925525762e-02 7.849741727113723755e-03 3.181898593902587891e-01
-1.354846974834799864e-02 7.836097269318997860e-03 3.176367878913879395e-01
-1.389799994183704354e-02 7.830239948816597462e-03 3.173993527889251709e-01
-1.424700824543833830e-02 7.824391592293977737e-03 3.171623051166534424e-01
-1.459583770600147642e-02 7.818830723408609629e-03 3.169368803501129150e-01
-1.494466524571180441e-02 7.813665550202131271e-03 3.167274892330169678e-01
-1.529339712113142111e-02 7.808784022927284241e-03 3.165296316146850586e-01
-1.564207113813608982e-02 7.804185501299798489e-03 3.163432478904724121e-01
-1.599017914384603598e-02 7.799481973052024841e-03 3.161525726318359375e-01
-1.633489608764648535e-02 7.792741060256958008e-03 3.158793449401855469e-01
-1.668298695120029249e-02 7.788657967466861010e-03 3.157138228416442871e-01
-1.703020295361057021e-02 7.784248969983309507e-03 3.155350983142852783e-01
-1.737693766597658493e-02 7.779789390042424202e-03 3.153543174266815186e-01
-1.772381492890417673e-02 7.775664678774774075e-03 3.151871562004089355e-01
-1.807078672107309200e-02 7.771819131448864937e-03 3.150312602519989014e-01
-1.841760577633977033e-02 7.768087554723024368e-03 3.148799836635589600e-01
-1.876389604411088027e-02 7.764249050524085760e-03 3.147244155406951904e-01
-1.912259764038026430e-02 7.767428702209144831e-03 3.148533105850219727e-01
-1.947453853324987091e-02 7.766825554426759481e-03 3.148288428783416748e-01
-1.982621557079255678e-02 7.766112918034195900e-03 3.147999644279479980e-01
-2.017804182367399432e-02 7.765509770251810551e-03 3.147754967212677002e-01
-2.053014235105365612e-02 7.765071175526827574e-03 3.147577345371246338e-01
-2.088242696016095676e-02 7.764742069412022829e-03 3.147443830966949463e-01
-2.123491192003712155e-02 7.764523092191666365e-03 3.147355318069458008e-01
-2.158784478786401548e-02 7.764523092191666365e-03 3.147355318069458008e-01
-2.193384442478418447e-02 7.761345361359417439e-03 3.146066963672637939e-01
-2.229139170492999353e-02 7.763481989968568087e-03 3.146933317184448242e-01
-2.264938497217372157e-02 7.765729387756437063e-03 3.147844076156616211e-01
-2.300745638320222594e-02 7.767922361381351948e-03 3.148733079433441162e-01
-2.336573169566691019e-02 7.770117255859076977e-03 3.149622678756713867e-01
-2.372407697374001243e-02 7.772258366458117962e-03 3.150490820407867432e-01
-2.408275519963353969e-02 7.774455822072923183e-03 3.151381313800811768e-01
-2.444149713381193675e-02 7.776598853524774313e-03 3.152250051498413086e-01
-2.479078375734388925e-02 7.774950761813670397e-03 3.151581883430480957e-01
-2.514632563805207707e-02 7.775774807669222355e-03 3.151915967464447021e-01
-2.550252311164513327e-02 7.776819111313670874e-03 3.152339458465576172e-01
-2.585852189338766136e-02 7.777753926347941160e-03 3.152718245983123779e-01
-2.621445548254996635e-02 7.778633676934987307e-03 3.153074979782104492e-01
-2.657047082437202432e-02 7.779514067806303501e-03 3.153431713581085205e-01
-2.692641282454133131e-02 7.780340034514665604e-03 3.153766393661499023e-01
-2.728195502539165415e-02 7.781000167597085238e-03 3.154034018516540527e-01
-2.763387665152549841e-02 7.780395098961889744e-03 3.153788745403289795e-01
-2.798769366461783745e-02 7.780450163409113884e-03 3.153811097145080566e-01
-2.834184414939954974e-02 7.780614716466516256e-03 3.153877854347229004e-01
-2.869567615096457400e-02 7.780669780913740396e-03 3.153900206089019775e-01
-2.904951315838843681e-02 7.780724845360964537e-03 3.153922557830810547e-01
-2.940439138445071973e-02 7.781110296491533518e-03 3.154078722000122070e-01
-2.975930465152487256e-02 7.781495747622102499e-03 3.154234886169433594e-01
-3.011407318525016405e-02 7.781825494021177292e-03 3.154368698596954346e-01
-3.046364977024495699e-02 7.780559652019292116e-03 3.153855502605438232e-01
-3.081913871108554401e-02 7.781110296491533518e-03 3.154078722000122070e-01
-3.117560379439964988e-02 7.781936263199895620e-03 3.154413402080535889e-01
-3.153101546457037080e-02 7.782431202940642834e-03 3.154614269733428955e-01
-3.188704500906169165e-02 7.783091976307332516e-03 3.154882192611694336e-01
-3.224371504154987383e-02 7.783918583299964666e-03 3.155217170715332031e-01
-3.260006749304011214e-02 7.784634421113878489e-03 3.155507445335388184e-01
-3.295430997502989817e-02 7.784744550008326769e-03 3.155551850795745850e-01
-3.326655283570289362e-02 7.773302029818296432e-03 3.150913715362548828e-01
-3.360270394012331713e-02 7.768635638058185577e-03 3.149022161960601807e-01
-3.393273421796038497e-02 7.762440887745469809e-03 3.146511018276214600e-01
-3.425687489914707590e-02 7.754834310617297888e-03 3.143427670001983643e-01
-3.458517440129071224e-02 7.748498057480901480e-03 3.140859305858612061e-01
-3.492156863911077130e-02 7.744406000711023808e-03 3.139200806617736816e-01
-3.526442637201398361e-02 7.742062560282647610e-03 3.138250708580017090e-01
-3.560858268872834492e-02 7.740101369563490152e-03 3.137455582618713379e-01
-3.590495173819362867e-02 7.726237934548407793e-03 3.131836354732513428e-01
-3.621821029344573367e-02 7.716860971413552761e-03 3.128035366535186768e-01
-3.652871999191120017e-02 7.707020442467182875e-03 3.124046623706817627e-01
-3.683888862258754421e-02 7.697313732933253050e-03 3.120111823081970215e-01
-3.714984561782330025e-02 7.688006560783833265e-03 3.116339147090911865e-01
-3.746096067596226681e-02 7.678936934098601341e-03 3.112662732601165771e-01
-3.777133876690640796e-02 7.669887796510010958e-03 3.108994662761688232e-01
-3.808375307824462402e-02 7.661500712856650352e-03 3.105595111846923828e-01
-3.854039788246154535e-02 7.686341181397438049e-03 3.115664124488830566e-01
-3.888149131205864001e-02 7.684461947064846754e-03 3.114902377128601074e-01
-3.921835240442305553e-02 7.681670947931706905e-03 3.113771080970764160e-01
-3.955593652324750770e-02 7.679097005166113377e-03 3.112727701663970947e-01
-3.989719238132238138e-02 7.677382323890924454e-03 3.112032711505889893e-01
-4.024124654359183956e-02 7.676311128307133913e-03 3.111598193645477295e-01
-4.058718634303658951e-02 7.675667642615735531e-03 3.111337721347808838e-01
-4.093432667548767973e-02 7.675293076317757368e-03 3.111185729503631592e-01
-4.109556937590241182e-02 7.635601214133203030e-03 3.095096349716186523e-01
-4.145757329650223005e-02 7.638729643076658249e-03 3.096364736557006836e-01
-4.181910579325631011e-02 7.641701202373951674e-03 3.097569346427917480e-01
-4.218169630155898381e-02 7.644834753591567278e-03 3.098839521408081055e-01
-4.254588868468999613e-02 7.648236583918333054e-03 3.100218474864959717e-01
-4.290908650262281049e-02 7.651375257410109043e-03 3.101490736007690430e-01
-4.327285137958824385e-02 7.654570275917649269e-03 3.102785646915435791e-01
-4.363933929824270058e-02 7.658247428480535746e-03 3.104276061058044434e-01
-4.416111122816800821e-02 7.692361134104430676e-03 3.118104338645935059e-01
-4.448977860272861767e-02 7.688275480177253485e-03 3.116447925567626953e-01
-4.483339964179321874e-02 7.687147299293428659e-03 3.115990757942199707e-01
-4.517803934402763594e-02 7.686233613640069962e-03 3.115620613098144531e-01
-4.552373371087014425e-02 7.685535703785717487e-03 3.115337491035461426e-01
-4.588335979031398643e-02 7.687469362281262875e-03 3.116121292114257812e-01
-4.630062012700363744e-02 7.700115616898983717e-03 3.121247589588165283e-01
-4.695666135638020683e-02 7.756693696137517691e-03 3.144181370735168457e-01
-5.450086236931383360e-02 9.075158101040869951e-03 3.678622245788574219e-01
2.206426481017842792e-02 8.611356985056772828e-03 3.656839728355407715e-01
2.091830416349694036e-02 8.373605960514396429e-03 3.555878400802612305e-01
2.003657713532447718e-02 8.215126872528344393e-03 3.488579392433166504e-01
1.958881953498348497e-02 8.196273178327828646e-03 3.480573296546936035e-01
1.916494564386084579e-02 8.184900943888351321e-03 3.475743830204010010e-01
1.875296837999485336e-02 8.177251409506425261e-03 3.472495675086975098e-01
1.834375923965126179e-02 8.170315733877941966e-03 3.469550311565399170e-01
1.793881145305931471e-02 8.164661703631281853e-03 3.467149138450622559e-01
1.753705065231770180e-02 8.159966615494340658e-03 3.465155363082885742e-01
1.713609367026947342e-02 8.155402931151911616e-03 3.463217616081237793e-01
1.655736577697098158e-02 8.084012166364118457e-03 3.432901203632354736e-01
1.614652452291920684e-02 8.074127545114606619e-03 3.428703844547271729e-01
1.573955570813268326e-02 8.065382775384932756e-03 3.424990177154541016e-01
1.533362333895638488e-02 8.056718681473284960e-03 3.421311080455780029e-01
1.492673031054437063e-02 8.047333394642919302e-03 3.417325615882873535e-01
1.451809352613054119e-02 8.036862040171399713e-03 3.412878811359405518e-01
1.410905848490074180e-02 8.025804563658311963e-03 3.408183157444000244e-01
1.369929107488132916e-02 8.013981889234855771e-03 3.403162658214569092e-01
1.321687212213873766e-02 7.969881553435698152e-03 3.384435176849365234e-01
1.281490567373111747e-02 7.959851471241563559e-03 3.380176126956939697e-01
1.241131598828360341e-02 7.948644255520775914e-03 3.375416696071624756e-01
1.200628825346939169e-02 7.936267851619049907e-03 3.370161056518554688e-01
1.160076552070677183e-02 7.923092634882777929e-03 3.364566266536712646e-01
1.119793049758300088e-02 7.910617219749838114e-03 3.359268605709075928e-01
1.079588756430894039e-02 7.897943782154470682e-03 3.353886604309082031e-01
1.039108404540456734e-02 7.883238169597461820e-03 3.347641825675964355e-01
9.966361923143266660e-03 7.857340009650215507e-03 3.336644172668457031e-01
9.576060202671213967e-03 7.848647801438346505e-03 3.332953155040740967e-01
9.185456035193054897e-03 7.839330966817215085e-03 3.328996598720550537e-01
